ply
format ascii 1.0
comment PCL generated
element vertex 1333
property float x
property float y
property float z
element camera 0
property float view_px
property float view_py
property float view_pz
property float x_axisx
property float x_axisy
property float x_axisz
property float y_axisx
property float y_axisy
property float y_axisz
property float z_axisx
property float z_axisy
property float z_axisz
property float focal
property float scalex
property float scaley
property float centerx
property float centery
property int viewportx
property int viewporty
property float k1
property float k2
end_header
-0.61367166 -0.30738205 -0.3024537
-0.61632508 -0.30470818 -0.3024537
-0.61632508 -0.30738205 -0.30126208
-0.60507983 -0.30738205 -0.3024537
-0.60239279 -0.30738205 -0.30138165
-0.59960634 -0.30738205 -0.30099684
-0.5689553 -0.30738205 -0.30075377
-0.56592041 -0.30738205 -0.3024537
-0.56616884 -0.30706638 -0.3024537
-0.56616884 -0.30738205 -0.30220014
-0.5746631 -0.29902261 -0.39719319
-0.57452822 -0.29869944 -0.39719319
-0.57452822 -0.29902261 -0.39692777
-0.57174462 -0.28509039 -0.38883382
-0.57174176 -0.28507704 -0.38883382
-0.57174176 -0.28509039 -0.38883024
-0.57198888 -0.29623622 -0.39440674
-0.57174176 -0.29623622 -0.39405233
-0.59825963 -0.31016845 -0.29966718
-0.59681988 -0.31016845 -0.29864401
-0.59403342 -0.31016845 -0.29794437
-0.57731467 -0.31016845 -0.29734343
-0.57452822 -0.31016845 -0.29783732
-0.57174176 -0.31016845 -0.29841357
-0.56863546 -0.31016845 -0.29966718
-0.5689553 -0.30975026 -0.29966718
-0.5689553 -0.31016845 -0.299393
-0.57070559 -0.2906633 -0.38883382
-0.57120681 -0.2934497 -0.39162028
-0.56975049 -0.28787678 -0.38604736
-0.60796571 -0.31295496 -0.3007955
-0.60517925 -0.31295496 -0.30019361
-0.60239279 -0.31295496 -0.30023056
-0.57174176 -0.31295496 -0.30043525
-0.56888109 -0.31295496 -0.3024537
-0.5689553 -0.31295496 -0.30234891
-0.56616884 -0.31104416 -0.3024537
-0.61075217 -0.31574136 -0.2997908
-0.60796571 -0.31574136 -0.30011719
-0.60517925 -0.31574136 -0.30010647
-0.60239279 -0.31574136 -0.29975718
-0.57145262 -0.31574136 -0.3024537
-0.57174176 -0.31574136 -0.30209666
-0.5689553 -0.31302875 -0.3024537
-0.61911154 -0.30180913 -0.30246049
-0.61353862 -0.30180913 -0.30348617
-0.61075217 -0.30180913 -0.30292815
-0.60796571 -0.30180913 -0.30394953
-0.60517925 -0.30180913 -0.30319732
-0.56461173 -0.30180913 -0.30524009
-0.56616884 -0.30180913 -0.30352789
-0.56338239 -0.29941005 -0.30524009
-0.61641526 -0.30459553 -0.3024537
-0.61911154 -0.30181903 -0.3024537
-0.61911154 -0.30459553 -0.30129915
-0.61632508 -0.30398053 -0.3024537
-0.60378653 -0.30459553 -0.3024537
-0.60239279 -0.30459553 -0.30187064
-0.59960634 -0.30459553 -0.30094808
-0.57174176 -0.30459553 -0.30030829
-0.56825805 -0.30459553 -0.3024537
-0.5689553 -0.30459553 -0.30176049
-0.56998295 -0.29623622 -0.39162028
-0.57323056 -0.29902261 -0.39440674
-0.57174176 -0.29902261 -0.39267182
-0.56994104 -0.28509039 -0.38604736
-0.59770024 -0.30738205 -0.29966718
-0.59681988 -0.30738205 -0.2989766
-0.59403342 -0.30738205 -0.29779309
-0.58010113 -0.30738205 -0.29761571
-0.57731467 -0.30738205 -0.2979036
-0.57452822 -0.30738205 -0.29766649
-0.57081479 -0.30738205 -0.29966718
-0.57174176 -0.30638975 -0.29966718
-0.57174176 -0.30738205 -0.29893786
-0.56927663 -0.2906633 -0.38604736
-0.5689553 -0.2906633 -0.38505661
-0.59293348 -0.31016845 -0.29688078
-0.59124696 -0.31016845 -0.29583782
-0.58846051 -0.31016845 -0.29606086
-0.58567405 -0.31016845 -0.29661649
-0.58288759 -0.31016845 -0.29651445
-0.57879519 -0.31016845 -0.29688078
-0.58010113 -0.30949956 -0.29688078
-0.58010113 -0.31016845 -0.29644114
-0.57013369 -0.2934497 -0.38883382
-0.56922221 -0.28787678 -0.38326091
-0.5689553 -0.28787678 -0.38267517
-0.61911154 -0.31574136 -0.29808992
-0.61632508 -0.31574136 -0.29838949
-0.61157113 -0.31574136 -0.29966718
-0.61353862 -0.31574136 -0.29936451
-0.61075217 -0.31529099 -0.29966718
-0.6020754 -0.31574136 -0.29966718
-0.59960634 -0.31574136 -0.29844838
-0.59681988 -0.31574136 -0.29750937
-0.57731467 -0.31574136 -0.29748982
-0.57388115 -0.31574136 -0.29966718
-0.57452822 -0.31574136 -0.29867393
-0.61911154 -0.31146759 -0.29966718
-0.61911154 -0.31295496 -0.29841584
-0.61632508 -0.31201929 -0.29966718
-0.61632508 -0.31295496 -0.29921979
-0.61353862 -0.31086153 -0.29966718
-0.61353862 -0.31295496 -0.29892927
-0.60989481 -0.31295496 -0.29966718
-0.61075217 -0.31235927 -0.29966718
-0.61075217 -0.31295496 -0.29922205
-0.60033894 -0.31295496 -0.29966718
-0.59960634 -0.31219441 -0.29966718
-0.59960634 -0.31295496 -0.2991609
-0.59681988 -0.31295496 -0.29807204
-0.59403342 -0.31295496 -0.29694229
-0.57731467 -0.31295496 -0.29698604
-0.57270902 -0.31295496 -0.29966718
-0.57452822 -0.31295496 -0.29816896
-0.57174176 -0.31212777 -0.29966718
-0.5689553 -0.31048352 -0.29966718
-0.57081068 -0.29902261 -0.39162028
-0.56923151 -0.29623622 -0.38883382
-0.5689553 -0.29623622 -0.38718551
-0.61902922 -0.30180913 -0.3024537
-0.61911154 -0.30178636 -0.3024537
-0.61548048 -0.30180913 -0.3024537
-0.61632508 -0.30006808 -0.3024537
-0.61632508 -0.30180913 -0.30222481
-0.60302418 -0.30180913 -0.3024537
-0.60517925 -0.29963571 -0.3024537
-0.60239279 -0.30180913 -0.30220419
-0.59960634 -0.30180913 -0.30091637
-0.59681988 -0.30180913 -0.30039543
-0.57174176 -0.30180913 -0.30029517
-0.56756616 -0.30180913 -0.3024537
-0.5689553 -0.30180913 -0.30130035
-0.56616884 -0.30077034 -0.3024537
-0.56338239 -0.29947883 -0.3024537
-0.56949157 -0.28509039 -0.38326091
-0.59698671 -0.30459553 -0.29966718
-0.59681988 -0.30434209 -0.29966718
-0.59681988 -0.30459553 -0.2995531
-0.59403342 -0.30459553 -0.29871124
-0.59124696 -0.30459553 -0.297041
-0.58010113 -0.30459553 -0.29736322
-0.57731467 -0.30459553 -0.29816729
-0.57309377 -0.30459553 -0.29966718
-0.57452822 -0.30459553 -0.29883367
-0.59224969 -0.30738205 -0.29688078
-0.59124696 -0.3051911 -0.29688078
-0.59124696 -0.30738205 -0.29635626
-0.58846051 -0.30738205 -0.29534763
-0.58567405 -0.30738205 -0.29524142
-0.58186048 -0.30738205 -0.29688078
-0.58288759 -0.30738205 -0.29622751
-0.56849957 -0.2906633 -0.38326091
-0.5689553 -0.28877002 -0.38326091
-0.56904596 -0.2934497 -0.38604736
-0.5689553 -0.2934497 -0.38579744
-0.56819391 -0.28787678 -0.38047445
-0.5689553 -0.2851122 -0.38047445
-0.56992179 -0.29902261 -0.38883382
-0.56878877 -0.29623622 -0.38604736
-0.5689553 -0.29444617 -0.38604736
-0.59393096 -0.31295496 -0.29688078
-0.59124696 -0.31295496 -0.29563242
-0.58846051 -0.31295496 -0.29630882
-0.58567405 -0.31295496 -0.29597217
-0.58288759 -0.31295496 -0.29591531
-0.57756186 -0.31295496 -0.29688078
-0.58010113 -0.31295496 -0.29611391
-0.59480971 -0.31574136 -0.29688078
-0.59403342 -0.31350988 -0.29688078
-0.59403342 -0.31574136 -0.29661125
-0.59124696 -0.31574136 -0.29603952
-0.58846051 -0.31574136 -0.29578263
-0.58567405 -0.31574136 -0.29575759
-0.58288759 -0.31574136 -0.29594761
-0.57897896 -0.31574136 -0.29688078
-0.58010113 -0.31574136 -0.29645091
-0.56896263 -0.28509039 -0.38047445
-0.59562641 -0.30180913 -0.29966718
-0.59403342 -0.30180913 -0.29869658
-0.59124696 -0.30180913 -0.29835898
-0.57731467 -0.30180913 -0.29765314
-0.57329941 -0.30180913 -0.29966718
-0.57452822 -0.30180913 -0.2987538
-0.57174176 -0.30089384 -0.29966718
-0.5689553 -0.29956871 -0.29966718
-0.59071094 -0.30459553 -0.29688078
-0.58846051 -0.30459553 -0.29650563
-0.58567405 -0.30459553 -0.29647392
-0.58082628 -0.30459553 -0.29688078
-0.58288759 -0.30459553 -0.29585785
-0.58010113 -0.30290705 -0.29688078
-0.56797165 -0.2934497 -0.38326091
-0.56747228 -0.2906633 -0.38047445
-0.5679217 -0.28787678 -0.37768799
-0.5689553 -0.28570956 -0.37768799
-0.56902552 -0.29902261 -0.38604736
-0.5689553 -0.29827088 -0.38604736
-0.5689553 -0.29902261 -0.38588387
-0.56782931 -0.29623622 -0.38326091
-0.56919926 -0.28509039 -0.37768799
-0.5689553 -0.28289884 -0.37768799
-0.5689553 -0.28509039 -0.37691784
-0.56723309 -0.2934497 -0.38047445
-0.56758046 -0.2906633 -0.37768799
-0.58943653 -0.30180913 -0.29688078
-0.58846051 -0.30086225 -0.29688078
-0.58846051 -0.30180913 -0.29647893
-0.58567405 -0.30180913 -0.29652065
-0.58288759 -0.30180913 -0.29589111
-0.57930684 -0.30180913 -0.29688078
-0.58010113 -0.30057973 -0.29688078
-0.58010113 -0.30180913 -0.29635543
-0.56794578 -0.28787678 -0.37490153
-0.56687325 -0.29623622 -0.38047445
-0.56787366 -0.29902261 -0.38326091
-0.56695968 -0.2934497 -0.37768799
-0.56761521 -0.2906633 -0.37490153
-0.56828249 -0.28509039 -0.37490153
-0.5689553 -0.28304511 -0.37490153
-0.56795514 -0.28787678 -0.37211508
-0.5689553 -0.28787678 -0.36956155
-0.5665251 -0.29623622 -0.37768799
-0.56616884 -0.29623622 -0.37533993
-0.56717098 -0.29902261 -0.38047445
-0.56694794 -0.2934497 -0.37490153
-0.56761956 -0.2906633 -0.37211508
-0.56867033 -0.28509039 -0.37211508
-0.5689553 -0.28509039 -0.3711099
-0.56685936 -0.29902261 -0.37768799
-0.56610793 -0.29623622 -0.37490153
-0.56616884 -0.29602736 -0.37490153
-0.56616884 -0.29623622 -0.37459892
-0.56902486 -0.28787678 -0.36932862
-0.56694537 -0.2934497 -0.37211508
-0.56809896 -0.2906633 -0.36932862
-0.5689553 -0.28809386 -0.36932862
-0.5689553 -0.2906633 -0.36748189
-0.56667507 -0.29902261 -0.37490153
-0.56616884 -0.29659933 -0.37490153
-0.56942695 -0.28509039 -0.36932862
-0.56668401 -0.29623622 -0.37211508
-0.56901252 -0.28787678 -0.36654216
-0.5689553 -0.28787678 -0.36488402
-0.56750774 -0.2934497 -0.36932862
-0.5694083 -0.2906633 -0.36654216
-0.56678438 -0.29623622 -0.36932862
-0.56627631 -0.29902261 -0.37211508
-0.56956446 -0.28509039 -0.36654216
-0.56829458 -0.2934497 -0.36654216
-0.5689553 -0.29178399 -0.36654216
-0.5689553 -0.2934497 -0.36471838
-0.56891435 -0.28787678 -0.3637557
-0.5689553 -0.28774625 -0.3637557
-0.5689553 -0.28787678 -0.36355031
-0.56936121 -0.2906633 -0.3637557
-0.5689553 -0.28808111 -0.3637557
-0.56628442 -0.29902261 -0.36932862
-0.56747317 -0.29623622 -0.36654216
-0.56961101 -0.28509039 -0.3637557
-0.56936109 -0.2934497 -0.3637557
-0.56950456 -0.28787678 -0.36096925
-0.57014108 -0.2906633 -0.36096925
-0.56683218 -0.29902261 -0.36654216
-0.5682174 -0.29623622 -0.3637557
-0.5689553 -0.29442412 -0.3637557
-0.5689553 -0.29623622 -0.36197555
-0.56940633 -0.28509039 -0.36096925
-0.56984419 -0.2934497 -0.36096925
-0.57026005 -0.2906633 -0.35818279
-0.56967235 -0.28787678 -0.35818279
-0.56794339 -0.29902261 -0.3637557
-0.56941891 -0.29623622 -0.36096925
-0.56996065 -0.2934497 -0.35818279
-0.5696668 -0.28509039 -0.35818279
-0.5689553 -0.2836743 -0.35818279
-0.5689553 -0.28509039 -0.35741931
-0.57012355 -0.2906633 -0.35539633
-0.5689553 -0.2906633 -0.35263753
-0.56878346 -0.29902261 -0.36096925
-0.5689553 -0.29828018 -0.36096925
-0.5689553 -0.29902261 -0.36018246
-0.56920582 -0.28787678 -0.35539633
-0.5689553 -0.28758532 -0.35539633
-0.5689553 -0.28787678 -0.35507488
-0.56983477 -0.29623622 -0.35818279
-0.57010037 -0.2934497 -0.35539633
-0.56894076 -0.2906633 -0.35260987
-0.56641227 -0.28509039 -0.35539633
-0.56616884 -0.28483814 -0.35539633
-0.56616884 -0.28509039 -0.35512668
-0.56939203 -0.29902261 -0.35818279
-0.56689477 -0.28787678 -0.35260987
-0.56616884 -0.28714985 -0.35260987
-0.56616884 -0.28787678 -0.35196447
-0.57044828 -0.29623622 -0.35539633
-0.5695799 -0.2934497 -0.35260987
-0.5689553 -0.29072136 -0.35260987
-0.5689553 -0.2934497 -0.35160035
-0.56706774 -0.2906633 -0.34982342
-0.56616884 -0.28993183 -0.34982342
-0.56616884 -0.2906633 -0.34901446
-0.56999987 -0.29902261 -0.35539633
-0.56394327 -0.28509039 -0.35260987
-0.56338239 -0.28467113 -0.35260987
-0.56338239 -0.28509039 -0.35216826
-0.56059593 -0.28302974 -0.35260987
-0.56059593 -0.28509039 -0.34988815
-0.57020915 -0.29623622 -0.35260987
-0.5689553 -0.29623622 -0.35003453
-0.56363797 -0.28787678 -0.34982342
-0.56338239 -0.28765053 -0.34982342
-0.56338239 -0.28787678 -0.34961325
-0.56059593 -0.28515524 -0.34982342
-0.56777596 -0.2934497 -0.34982342
-0.56616884 -0.2934497 -0.3479721
-0.5705058 -0.29902261 -0.35260987
-0.56352997 -0.2906633 -0.34703702
-0.56338239 -0.29055792 -0.34703702
-0.56338239 -0.2906633 -0.34695691
-0.56059593 -0.2906633 -0.3446359
-0.56884038 -0.29623622 -0.34982342
-0.5605132 -0.28509039 -0.34982342
-0.56070018 -0.28787678 -0.34703702
-0.56059593 -0.2877683 -0.34703702
-0.56059593 -0.28787678 -0.34692997
-0.56538606 -0.2934497 -0.34703702
-0.56338239 -0.2934497 -0.34546334
-0.56912428 -0.29902261 -0.34982342
-0.5689553 -0.29731661 -0.34982342
-0.5689553 -0.29902261 -0.34948665
-0.56016076 -0.2906633 -0.3442505
-0.56634581 -0.29623622 -0.34703702
-0.56616884 -0.29575783 -0.34703702
-0.56616884 -0.29623622 -0.34686702
-0.55793262 -0.28509039 -0.34703702
-0.55780947 -0.28474861 -0.34703702
-0.55780947 -0.28509039 -0.34666735
-0.55867761 -0.28787678 -0.3442505
-0.55780947 -0.2861976 -0.3442505
-0.55780947 -0.28787678 -0.34224147
-0.56169122 -0.2934497 -0.3442505
-0.56059593 -0.29136425 -0.3442505
-0.56059593 -0.2934497 -0.34242445
-0.56773823 -0.29902261 -0.34703702
-0.56616884 -0.29902261 -0.34460121
-0.55822325 -0.2906633 -0.3414641
-0.55780947 -0.28937715 -0.3414641
-0.55780947 -0.2906633 -0.34088641
-0.56382525 -0.29623622 -0.3442505
-0.56338239 -0.29558402 -0.3442505
-0.56338239 -0.29623622 -0.34376878
-0.55702883 -0.28509039 -0.3442505
-0.55719483 -0.28787678 -0.3414641
-0.56004727 -0.2934497 -0.3414641
-0.56586498 -0.29902261 -0.3442505
-0.56338239 -0.29902261 -0.34162158
-0.55649465 -0.2906633 -0.33867759
-0.56159556 -0.29623622 -0.3414641
-0.56059593 -0.29426891 -0.3414641
-0.56059593 -0.29623622 -0.33984441
-0.55588686 -0.28509039 -0.3414641
-0.55591828 -0.28787678 -0.33867759
-0.5578118 -0.2934497 -0.33867759
-0.55780947 -0.29344553 -0.33867759
-0.55780947 -0.2934497 -0.33866864
-0.56327128 -0.29902261 -0.3414641
-0.55583417 -0.2906633 -0.33589119
-0.55973804 -0.29623622 -0.33867759
-0.55616295 -0.28509039 -0.33867759
-0.55544609 -0.28787678 -0.33589119
-0.55717242 -0.2934497 -0.33589119
-0.56137604 -0.29902261 -0.33867759
-0.56059593 -0.29767901 -0.33867759
-0.56059593 -0.29902261 -0.3375749
-0.55513364 -0.2906633 -0.33310467
-0.55502301 -0.2906633 -0.33138865
-0.55824584 -0.29623622 -0.33589119
-0.55780947 -0.29492515 -0.33589119
-0.55780947 -0.29623622 -0.33448905
-0.55616474 -0.28509039 -0.33589119
-0.55502301 -0.28509039 -0.33315355
-0.55593866 -0.28787678 -0.33310467
-0.55502301 -0.2851519 -0.33310467
-0.55601096 -0.2934497 -0.33310467
-0.55502301 -0.2934497 -0.33046168
-0.55974072 -0.29902261 -0.33589119
-0.55497998 -0.2906633 -0.33031827
-0.55502301 -0.29038149 -0.33031827
-0.55502301 -0.2906633 -0.33021313
-0.55730695 -0.29623622 -0.33310467
-0.55500245 -0.28509039 -0.33310467
-0.55502301 -0.28497523 -0.33310467
-0.55502301 -0.28509039 -0.33302492
-0.55551815 -0.28787678 -0.33031827
-0.5549739 -0.2934497 -0.33031827
-0.55502301 -0.2934497 -0.33021313
-0.55828547 -0.29902261 -0.33310467
-0.55780947 -0.29778153 -0.33310467
-0.55631459 -0.2906633 -0.32753175
-0.55654496 -0.29623622 -0.33031827
-0.55502301 -0.29354972 -0.33031827
-0.55567557 -0.28509039 -0.33031827
-0.55502301 -0.28288251 -0.33031827
-0.55606103 -0.2934497 -0.32753175
-0.55680358 -0.28787678 -0.32753175
-0.55780947 -0.28787678 -0.32567793
-0.55815041 -0.29902261 -0.33031827
-0.55780947 -0.29837638 -0.33031827
-0.55780947 -0.29902261 -0.32909864
-0.55721372 -0.2906633 -0.32474536
-0.55780947 -0.28929752 -0.32474536
-0.55780947 -0.2906633 -0.32288867
-0.5570662 -0.29623622 -0.32753175
-0.55611968 -0.28509039 -0.32753175
-0.55631799 -0.2934497 -0.32474536
-0.55780947 -0.2934497 -0.32263023
-0.55830717 -0.28787678 -0.32474536
-0.55780947 -0.28552872 -0.32474536
-0.55719286 -0.29902261 -0.32753175
-0.55807149 -0.2906633 -0.32195884
-0.55728 -0.29623622 -0.32474536
-0.55780947 -0.29623622 -0.32370216
-0.55772954 -0.28509039 -0.32474536
-0.55780947 -0.28509039 -0.32465023
-0.55828345 -0.2934497 -0.32195884
-0.55936456 -0.28787678 -0.32195884
-0.56059593 -0.28787678 -0.31936008
-0.55678058 -0.29902261 -0.32474536
-0.55780947 -0.29902261 -0.32310921
-0.56017637 -0.2906633 -0.31917244
-0.56059593 -0.28843158 -0.31917244
-0.56059593 -0.2906633 -0.31725389
-0.55835199 -0.29623622 -0.32195884
-0.55972207 -0.2934497 -0.31917244
-0.56045455 -0.28509039 -0.32195884
-0.56059593 -0.28509039 -0.3217836
-0.56073219 -0.28787678 -0.31917244
-0.5585292 -0.29902261 -0.32195884
-0.56082803 -0.2906633 -0.31638592
-0.5601564 -0.29623622 -0.31917244
-0.56059593 -0.29623622 -0.31743175
-0.56058764 -0.2934497 -0.31638592
-0.56059593 -0.29336041 -0.31638592
-0.56059593 -0.2934497 -0.31637555
-0.56206405 -0.28509039 -0.31917244
-0.56009763 -0.29902261 -0.31917244
-0.56059593 -0.29902261 -0.31781858
-0.56228507 -0.28787678 -0.31638592
-0.56275988 -0.2906633 -0.31359953
-0.56338239 -0.2906633 -0.31207734
-0.5607143 -0.29623622 -0.31638592
-0.56059593 -0.29358643 -0.31638592
-0.56616884 -0.28509039 -0.31457263
-0.5626626 -0.28509039 -0.31638592
-0.56338239 -0.28445905 -0.31638592
-0.56338239 -0.28509039 -0.31599909
-0.5628643 -0.2934497 -0.31359953
-0.56106329 -0.29902261 -0.31638592
-0.56616884 -0.28611594 -0.31359953
-0.56616884 -0.28787678 -0.31104201
-0.56324911 -0.28787678 -0.31359953
-0.56338239 -0.28774756 -0.31359953
-0.56338239 -0.28787678 -0.31345946
-0.56381679 -0.2906633 -0.31081301
-0.56616884 -0.28810483 -0.31081301
-0.56059593 -0.2906633 -0.30919796
-0.56237781 -0.29623622 -0.31359953
-0.56677854 -0.28509039 -0.31359953
-0.56169218 -0.2934497 -0.31081301
-0.56338239 -0.29090554 -0.31081301
-0.56252778 -0.29902261 -0.31359953
-0.56643641 -0.28787678 -0.31081301
-0.61597055 -0.2906633 -0.30802661
-0.56456208 -0.2906633 -0.30802661
-0.56616884 -0.28883976 -0.30802661
-0.56155664 -0.2906633 -0.30802661
-0.56338239 -0.2906633 -0.30663377
-0.56007707 -0.2906633 -0.30802661
-0.56059593 -0.29015738 -0.30802661
-0.56191045 -0.29623622 -0.31081301
-0.56338239 -0.29623622 -0.30927557
-0.56631523 -0.28509039 -0.31081301
-0.56186682 -0.29902261 -0.31081301
-0.61911154 -0.2915588 -0.30802661
-0.61632508 -0.2912789 -0.30802661
-0.56236404 -0.2934497 -0.30802661
-0.56338239 -0.29219669 -0.30802661
-0.56059593 -0.29141718 -0.30802661
-0.56688815 -0.28787678 -0.30802661
-0.56616884 -0.28787678 -0.30744761
-0.6141333 -0.2906633 -0.30524009
-0.61075217 -0.2906633 -0.30515748
-0.60796571 -0.2906633 -0.30477709
-0.60517925 -0.2906633 -0.30284017
-0.60239279 -0.2906633 -0.30314416
-0.59960634 -0.2906633 -0.30325419
-0.56338239 -0.2897045 -0.30524009
-0.56057489 -0.2906633 -0.30524009
-0.56059593 -0.29064304 -0.30524009
-0.56392735 -0.29623622 -0.30802661
-0.56338239 -0.29493994 -0.30802661
-0.56338239 -0.29623622 -0.30541557
-0.56243449 -0.29902261 -0.30802661
-0.56338239 -0.2977379 -0.30802661
-0.61429673 -0.28787678 -0.30524009
-0.61353862 -0.28723174 -0.30524009
-0.61075217 -0.28750843 -0.30524009
-0.60517925 -0.28787678 -0.30276674
-0.60239279 -0.28787678 -0.30303115
-0.56452531 -0.28787678 -0.30524009
-0.61911154 -0.2909717 -0.30524009
-0.61632508 -0.29207295 -0.30524009
-0.61632508 -0.2934497 -0.30449265
-0.61353862 -0.2934497 -0.30399972
-0.61075217 -0.2934497 -0.30466944
-0.60796571 -0.2934497 -0.30298251
-0.60517925 -0.2934497 -0.30315703
-0.56267112 -0.2934497 -0.30524009
-0.56059593 -0.2906962 -0.30524009
-0.59866416 -0.2906633 -0.3024537
-0.59681988 -0.2906633 -0.30075377
-0.59403342 -0.2906633 -0.30065519
-0.59124696 -0.2906633 -0.30069512
-0.58846051 -0.2906633 -0.30023021
-0.57452822 -0.2906633 -0.30013758
-0.56616884 -0.2906633 -0.30144721
-0.56338239 -0.2906633 -0.30158013
-0.56013 -0.2906633 -0.3024537
-0.56059593 -0.2906633 -0.30199164
-0.61632508 -0.29623622 -0.3029018
-0.61353862 -0.29623622 -0.30408138
-0.61075217 -0.29623622 -0.30364066
-0.60796571 -0.29623622 -0.30339319
-0.60517925 -0.29623622 -0.30296713
-0.56330532 -0.29623622 -0.30524009
-0.56338239 -0.29623622 -0.30517036
-0.59403342 -0.28787678 -0.30139202
-0.59124696 -0.28787678 -0.30133754
-0.58846051 -0.28787678 -0.30123264
-0.57731467 -0.28787678 -0.29997581
-0.61632508 -0.29902261 -0.3027429
-0.61353862 -0.29902261 -0.3025369
-0.61075217 -0.29902261 -0.30377334
-0.60796571 -0.29902261 -0.30365783
-0.56313515 -0.29902261 -0.30524009
-0.61885053 -0.2934497 -0.3024537
-0.61911154 -0.2934497 -0.30223161
-0.60300261 -0.2934497 -0.3024537
-0.60239279 -0.29279405 -0.3024537
-0.60239279 -0.2934497 -0.301974
-0.59960634 -0.29154235 -0.3024537
-0.59960634 -0.2934497 -0.30084532
-0.59681988 -0.2934497 -0.30083984
-0.59403342 -0.2934497 -0.300093
-0.56298435 -0.2934497 -0.3024537
-0.56338239 -0.2934497 -0.30204934
-0.56059593 -0.29121357 -0.3024537
-0.59403342 -0.2906633 -0.2972694
-0.59124696 -0.2906633 -0.29770023
-0.58771336 -0.2906633 -0.29966718
-0.58567405 -0.2906633 -0.29878014
-0.58288759 -0.2906633 -0.2987774
-0.58010113 -0.2906633 -0.29870027
-0.57542098 -0.2906633 -0.29966718
-0.57731467 -0.28833562 -0.29966718
-0.57731467 -0.2906633 -0.29772848
-0.57356828 -0.2906633 -0.29966718
-0.57174176 -0.2906633 -0.29860574
-0.56764811 -0.2906633 -0.29966718
-0.5689553 -0.2906633 -0.29846174
-0.61780721 -0.29623622 -0.3024537
-0.61911154 -0.29623622 -0.30154592
-0.60307485 -0.29623622 -0.3024537
-0.60239279 -0.29623622 -0.3019883
-0.59960634 -0.29623622 -0.30146343
-0.59681988 -0.29623622 -0.30008155
-0.59403342 -0.29623622 -0.29992062
-0.5689553 -0.29623622 -0.30081779
-0.56499934 -0.29623622 -0.3024537
-0.56616884 -0.29623622 -0.30123776
-0.56338239 -0.29394561 -0.3024537
-0.58687121 -0.28787678 -0.29966718
-0.57814604 -0.28787678 -0.29966718
-0.6167146 -0.29902261 -0.3024537
-0.61911154 -0.29902261 -0.29994231
-0.6054188 -0.29902261 -0.3024537
-0.60517925 -0.29829127 -0.3024537
-0.60517925 -0.29902261 -0.30227679
-0.60239279 -0.29902261 -0.30196303
-0.59960634 -0.29902261 -0.30108041
-0.59681988 -0.29902261 -0.30027074
-0.56616884 -0.29902261 -0.30122834
-0.56310648 -0.29902261 -0.3024537
-0.56338239 -0.29870325 -0.3024537
-0.56338239 -0.29902261 -0.30219036
-0.59176683 -0.2934497 -0.29966718
-0.59124696 -0.2932592 -0.29966718
-0.59124696 -0.2934497 -0.29953426
-0.58846051 -0.2914142 -0.29966718
-0.58846051 -0.2934497 -0.29843551
-0.58567405 -0.2934497 -0.29804605
-0.58288759 -0.2934497 -0.29787189
-0.57731467 -0.2934497 -0.29746491
-0.57452822 -0.29182714 -0.29966718
-0.57452822 -0.2934497 -0.29835874
-0.57174176 -0.2934497 -0.29881305
-0.5689553 -0.2934497 -0.29903156
-0.56559038 -0.2934497 -0.29966718
-0.56616884 -0.29278845 -0.29966718
-0.56616884 -0.2934497 -0.29913443
-0.59506428 -0.2906633 -0.29688078
-0.59083349 -0.2906633 -0.29688078
-0.58010113 -0.28816909 -0.29688078
-0.5781337 -0.28787678 -0.29688078
-0.59367973 -0.29623622 -0.29966718
-0.59124696 -0.29623622 -0.29828888
-0.58846051 -0.29623622 -0.2972936
-0.57452822 -0.29623622 -0.29806834
-0.57103521 -0.29623622 -0.29966718
-0.57174176 -0.29623622 -0.29902977
-0.5689553 -0.29428464 -0.29966718
-0.56616884 -0.29418367 -0.29966718
-0.59585023 -0.29902261 -0.29966718
-0.59403342 -0.29691118 -0.29966718
-0.59403342 -0.29902261 -0.29861182
-0.59124696 -0.29902261 -0.29817516
-0.58846051 -0.29902261 -0.2979793
-0.58010113 -0.29902261 -0.29730731
-0.57731467 -0.29902261 -0.29766613
-0.57452822 -0.29902261 -0.2980904
-0.57174176 -0.29902261 -0.29822403
-0.56857073 -0.29902261 -0.29966718
-0.5689553 -0.29856461 -0.29966718
-0.5689553 -0.29902261 -0.29932123
-0.59403342 -0.29119128 -0.29688078
-0.59124696 -0.29127961 -0.29688078
-0.58100897 -0.2934497 -0.29688078
-0.57867372 -0.2934497 -0.29688078
-0.58010113 -0.29312176 -0.29688078
-0.58010113 -0.2934497 -0.29652733
-0.587919 -0.29623622 -0.29688078
-0.58567405 -0.29496711 -0.29688078
-0.58567405 -0.29623622 -0.29636639
-0.58288759 -0.29527277 -0.29688078
-0.58288759 -0.29623622 -0.2964595
-0.58010113 -0.29623622 -0.29625279
-0.57646435 -0.29623622 -0.29688078
-0.57731467 -0.2947982 -0.29688078
-0.57731467 -0.29623622 -0.29616684
-0.5860287 -0.29902261 -0.29688078
-0.58567405 -0.29902261 -0.29680973
-0.58095634 -0.29902261 -0.29688078
-0.58288759 -0.29902261 -0.296413
-0.58010113 -0.29762536 -0.29688078
-0.57731467 -0.297378 -0.29688078
-0.7019434 -0.2934497 -0.44734949
-0.69869709 -0.29623622 -0.45013595
-0.69991887 -0.29623622 -0.44932097
-0.69812936 -0.29902261 -0.4529224
-0.69991887 -0.29902261 -0.45104069
-0.69991887 -0.2906633 -0.43813455
-0.69713241 -0.2906633 -0.43632573
-0.7003842 -0.2934497 -0.44456303
-0.70191163 -0.29623622 -0.44734949
-0.6961 -0.28787678 -0.4334172
-0.69434595 -0.28787678 -0.43149555
-0.70045537 -0.29902261 -0.45013595
-0.69991887 -0.29785687 -0.45013595
-0.69705206 -0.2906633 -0.43620366
-0.70063901 -0.2934497 -0.44177657
-0.69991887 -0.2934497 -0.4400773
-0.70045209 -0.29623622 -0.44456303
-0.69155949 -0.28509039 -0.4254477
-0.69355923 -0.28787678 -0.43063074
-0.70028788 -0.29902261 -0.44734949
-0.69590443 -0.2906633 -0.4334172
-0.70232636 -0.29623622 -0.44177657
-0.69908494 -0.2934497 -0.43899012
-0.69991887 -0.29228562 -0.43899012
-0.69122511 -0.28509039 -0.42505783
-0.68877304 -0.28509039 -0.42256898
-0.69299322 -0.28787678 -0.42784429
-0.70143795 -0.29902261 -0.44456303
-0.70270532 -0.29902261 -0.44241059
-0.70136577 -0.29623622 -0.43899012
-0.69991887 -0.29471248 -0.43899012
-0.6957587 -0.2906633 -0.43063074
-0.69434595 -0.28878504 -0.43063074
-0.69961035 -0.2934497 -0.43620366
-0.69713241 -0.29079252 -0.43620366
-0.68843055 -0.28509039 -0.42227137
-0.68877304 -0.2847932 -0.42227137
-0.69249177 -0.28787678 -0.42505783
-0.69155949 -0.28587586 -0.42505783
-0.69155949 -0.28787678 -0.42320997
-0.70278287 -0.29902261 -0.44177657
-0.70270532 -0.29766637 -0.44177657
-0.70270532 -0.29902261 -0.44153643
-0.70013714 -0.29623622 -0.43620366
-0.69991887 -0.29465848 -0.43620366
-0.69991887 -0.29623622 -0.43459088
-0.69838238 -0.2934497 -0.4334172
-0.69713241 -0.29208535 -0.4334172
-0.69713241 -0.2934497 -0.43093866
-0.69435096 -0.2906633 -0.42784429
-0.69434595 -0.29065901 -0.42784429
-0.69434595 -0.2906633 -0.42783648
-0.68773723 -0.28509039 -0.41948491
-0.68598658 -0.28509039 -0.41672599
-0.69111449 -0.28787678 -0.42227137
-0.68877304 -0.28540844 -0.42227137
-0.70139182 -0.29902261 -0.43899012
-0.69691789 -0.2934497 -0.43063074
-0.69968039 -0.29623622 -0.4334172
-0.69341791 -0.2906633 -0.42505783
-0.68928552 -0.28787678 -0.41948491
-0.68877304 -0.28740317 -0.41948491
-0.68877304 -0.28787678 -0.41869307
-0.68596101 -0.28509039 -0.41669846
-0.68320012 -0.28234059 -0.41669846
-0.70121813 -0.29902261 -0.43620366
-0.69991887 -0.29902261 -0.43425661
-0.69637227 -0.2934497 -0.42784429
-0.6977973 -0.29623622 -0.43063074
-0.69713241 -0.29424351 -0.43063074
-0.69713241 -0.29623622 -0.42937201
-0.69241935 -0.2906633 -0.42227137
-0.69155949 -0.2888661 -0.42227137
-0.69155949 -0.2906633 -0.42110747
-0.68768424 -0.28787678 -0.41669846
-0.68598658 -0.28514725 -0.41669846
-0.6993385 -0.29902261 -0.4334172
-0.69539016 -0.2934497 -0.42505783
-0.69434595 -0.29190487 -0.42505783
-0.69434595 -0.2934497 -0.42397594
-0.69663417 -0.29623622 -0.42784429
-0.69046795 -0.2906633 -0.41948491
-0.68877304 -0.2906633 -0.417983
-0.68320012 -0.2906633 -0.41670781
-0.69820982 -0.29902261 -0.43063074
-0.69713241 -0.29902261 -0.42833114
-0.69209218 -0.2934497 -0.42227137
-0.69155949 -0.2934497 -0.42137939
-0.69519001 -0.29623622 -0.42505783
-0.69434595 -0.29623622 -0.42421257
-0.68700892 -0.2906633 -0.41669846
-0.68322849 -0.2906633 -0.41669846
-0.68598658 -0.2906633 -0.41576201
-0.68320012 -0.29065377 -0.41669846
-0.69642329 -0.29902261 -0.42784429
-0.69026905 -0.2934497 -0.41948491
-0.68598658 -0.2934497 -0.41767585
-0.64976263 -0.28509039 -0.39827198
-0.6920585 -0.29623622 -0.42227137
-0.69155949 -0.29623622 -0.42160124
-0.68598658 -0.29623622 -0.41998631
-0.68320012 -0.29623622 -0.42046922
-0.65065908 -0.28787678 -0.40276617
-0.69455165 -0.29902261 -0.42505783
-0.69434595 -0.29902261 -0.42471516
-0.68598658 -0.29902261 -0.42244929
-0.68938136 -0.2934497 -0.41669846
-0.68749154 -0.2934497 -0.41669846
-0.68877304 -0.29269832 -0.41669846
-0.68877304 -0.2934497 -0.41615719
-0.68598658 -0.29225713 -0.41669846
-0.68957281 -0.29623622 -0.41948491
-0.68631774 -0.29623622 -0.41948491
-0.68877304 -0.29623622 -0.41861284
-0.68598658 -0.29609817 -0.41948491
-0.68320012 -0.29475337 -0.41948491
-0.6514352 -0.28509039 -0.39719319
-0.65254909 -0.28509039 -0.3953715
-0.65130424 -0.28787678 -0.39997965
-0.64976263 -0.28697044 -0.39997965
-0.69212109 -0.29902261 -0.42227137
-0.69155949 -0.29902261 -0.4219113
-0.68761361 -0.29902261 -0.42227137
-0.68877304 -0.29902261 -0.4217031
-0.68582195 -0.29902261 -0.42227137
-0.68598658 -0.29798263 -0.42227137
-0.68320012 -0.29902261 -0.4205634
-0.64697617 -0.2906633 -0.40364844
-0.6386168 -0.28953856 -0.40555263
-0.6386168 -0.2906633 -0.40411443
-0.63337052 -0.2906633 -0.40555263
-0.63583034 -0.2906633 -0.40436494
-0.68877304 -0.294429 -0.41669846
-0.63583034 -0.29623622 -0.41433758
-0.65326357 -0.28509039 -0.39440674
-0.65240788 -0.28787678 -0.39719319
-0.65254909 -0.28787678 -0.39705443
-0.7037428 -0.31016845 -0.46964115
-0.68877304 -0.2976169 -0.41948491
-0.69961911 -0.30738205 -0.46406823
-0.69713241 -0.30459553 -0.45927328
-0.64861196 -0.2906633 -0.40276617
-0.64976263 -0.28970593 -0.40276617
-0.64976263 -0.2906633 -0.40136117
-0.64530301 -0.2906633 -0.40276617
-0.64418972 -0.28996354 -0.40276617
-0.64418972 -0.2906633 -0.40185332
-0.64084303 -0.2906633 -0.40276617
-0.64140326 -0.28966123 -0.40276617
-0.64140326 -0.2906633 -0.40248942
-0.63555342 -0.29623622 -0.413912
-0.63583034 -0.29623622 -0.41236907
-0.63583034 -0.2934497 -0.40633231
-0.63199872 -0.2934497 -0.40833908
-0.63304389 -0.2934497 -0.4070397
-0.658122 -0.28509039 -0.38924032
-0.6552273 -0.28509039 -0.39162028
-0.65533555 -0.28509039 -0.39147747
-0.658122 -0.28787678 -0.39212769
-0.65528351 -0.28787678 -0.39440674
-0.65533555 -0.28787678 -0.39427739
-0.64437711 -0.29902261 -0.41669846
-0.64418972 -0.29902261 -0.41637087
-0.64140326 -0.29902261 -0.41477388
-0.70355856 -0.31016845 -0.46685469
-0.70270532 -0.30922884 -0.46685469
-0.70270532 -0.31016845 -0.46558017
-0.69794703 -0.30459553 -0.45849532
-0.69891983 -0.30738205 -0.46128178
-0.69713241 -0.30528253 -0.46128178
-0.70270532 -0.31160778 -0.46964115
-0.69913524 -0.31295496 -0.46964115
-0.69991887 -0.31295496 -0.46794957
-0.69812095 -0.30180913 -0.45570886
-0.70210612 -0.31574136 -0.47242761
-0.6368928 -0.29623622 -0.41112554
-0.6386168 -0.29623622 -0.40859658
-0.63583034 -0.29591078 -0.41112554
-0.63304389 -0.29524451 -0.41112554
-0.65533555 -0.2906633 -0.3974936
-0.6515801 -0.2906633 -0.39997965
-0.65254909 -0.2906633 -0.39896697
-0.64140326 -0.2934497 -0.4030416
-0.63649064 -0.2934497 -0.40555263
-0.6386168 -0.2934497 -0.40381277
-0.63583034 -0.2925964 -0.40555263
-0.63918048 -0.29902261 -0.413912
-0.6386168 -0.29859179 -0.413912
-0.63583034 -0.29652494 -0.413912
-0.65839922 -0.28509039 -0.38883382
-0.66090846 -0.28509039 -0.38653201
-0.658122 -0.28455013 -0.38883382
-0.70108783 -0.31016845 -0.46406823
-0.69991887 -0.3080501 -0.46406823
-0.69991887 -0.31016845 -0.46212041
-0.69853544 -0.30459553 -0.45570886
-0.69991887 -0.30459553 -0.45339513
-0.65865976 -0.28787678 -0.39162028
-0.66090846 -0.28787678 -0.38903201
-0.658122 -0.28703099 -0.39162028
-0.65533555 -0.28532344 -0.39162028
-0.69835895 -0.30738205 -0.45849532
-0.70129365 -0.31574136 -0.46964115
-0.69991887 -0.313595 -0.46964115
-0.70017833 -0.31295496 -0.46685469
-0.70270532 -0.31176335 -0.46685469
-0.69977248 -0.30180913 -0.4529224
-0.69991887 -0.30180913 -0.45245206
-0.65571022 -0.2906633 -0.39719319
-0.65533555 -0.29024559 -0.39719319
-0.65254909 -0.28813273 -0.39719319
-0.63877225 -0.29623622 -0.40833908
-0.6386168 -0.29611415 -0.40833908
-0.63583034 -0.29446644 -0.40833908
-0.63304389 -0.29478174 -0.40833908
-0.63940537 -0.29902261 -0.41112554
-0.64140326 -0.29902261 -0.40842932
-0.6386168 -0.29782206 -0.41112554
-0.69889903 -0.31016845 -0.46128178
-0.70018089 -0.30459553 -0.4529224
-0.69991887 -0.30276793 -0.4529224
-0.70101631 -0.31574136 -0.46685469
-0.65254909 -0.2934497 -0.40004808
-0.64976263 -0.2934497 -0.40074033
-0.64697617 -0.29204291 -0.40276617
-0.64697617 -0.2934497 -0.40074313
-0.64170998 -0.2934497 -0.40276617
-0.64418972 -0.2934497 -0.40158939
-0.64140326 -0.2922495 -0.40276617
-0.66134143 -0.28509039 -0.38604736
-0.66090846 -0.28439277 -0.38604736
-0.66111726 -0.28787678 -0.38883382
-0.66090846 -0.287646 -0.38883382
-0.69961053 -0.30738205 -0.45570886
-0.69991887 -0.30738205 -0.45505524
-0.70088547 -0.31295496 -0.46406823
-0.70055109 -0.30180913 -0.45013595
-0.65667915 -0.2906633 -0.39440674
-0.65533555 -0.28798527 -0.39440674
-0.64046687 -0.29623622 -0.40555263
-0.64140326 -0.29623622 -0.40452009
-0.6386168 -0.29494852 -0.40555263
-0.69893718 -0.31016845 -0.45849532
-0.69991887 -0.31016845 -0.45603698
-0.7011925 -0.30459553 -0.45013595
-0.70114571 -0.31574136 -0.46406823
-0.64152938 -0.29902261 -0.40833908
-0.64140326 -0.2989226 -0.40833908
-0.66235334 -0.28787678 -0.38604736
-0.66369492 -0.28787678 -0.38326979
-0.66200787 -0.28509039 -0.38326091
-0.70088458 -0.30738205 -0.4529224
-0.70046055 -0.31295496 -0.46128178
-0.69991887 -0.31210798 -0.46128178
-0.65269518 -0.2934497 -0.39997965
-0.65533555 -0.2934497 -0.39788026
-0.65254909 -0.29313976 -0.39997965
-0.70153397 -0.30180913 -0.44734949
-0.70270532 -0.30180913 -0.44457632
-0.71663761 -0.31016845 -0.51743996
-0.71385115 -0.31295496 -0.52086067
-0.71099108 -0.31574136 -0.5253703
-0.7110647 -0.31574136 -0.52495712
-0.72286475 -0.30738205 -0.51422447
-0.70011181 -0.31016845 -0.45570886
-0.69991887 -0.30910784 -0.45570886
-0.7016142 -0.31574136 -0.46128178
-0.70243937 -0.30459553 -0.44734949
-0.70270532 -0.30459553 -0.44674528
-0.64697617 -0.29623622 -0.40020227
-0.64270324 -0.29623622 -0.40276617
-0.64418972 -0.29623622 -0.40141439
-0.66090846 -0.2906633 -0.39073038
-0.65768683 -0.2906633 -0.39162028
-0.658122 -0.289653 -0.39162028
-0.658122 -0.2906633 -0.39131957
-0.64282417 -0.29902261 -0.40555263
-0.64418972 -0.29902261 -0.40364408
-0.64140326 -0.29752094 -0.40555263
-0.70129657 -0.31295496 -0.45849532
-0.69991887 -0.31144565 -0.45849532
-0.70196772 -0.30738205 -0.45013595
-0.70270532 -0.30738205 -0.44861686
-0.66369772 -0.28787678 -0.38326091
-0.66369492 -0.28787214 -0.38326091
-0.66369492 -0.28787678 -0.38319486
-0.66284913 -0.28509039 -0.38047445
-0.66369492 -0.28509039 -0.37896705
-0.72778344 -0.30459553 -0.50689965
-0.72499698 -0.30459553 -0.50768816
-0.65633798 -0.2934497 -0.39719319
-0.658122 -0.2934497 -0.39478809
-0.70270848 -0.30180913 -0.44456303
-0.70270532 -0.3017959 -0.44456303
-0.71478897 -0.31295496 -0.51979738
-0.71663761 -0.31295496 -0.51872247
-0.72221053 -0.31016845 -0.51634222
-0.71798617 -0.31016845 -0.51701093
-0.71942407 -0.31016845 -0.51652086
-0.72878128 -0.30180913 -0.50307864
-0.72778344 -0.30738205 -0.50882143
-0.72442734 -0.30738205 -0.51143801
-0.72499698 -0.30738205 -0.51052773
-0.71259034 -0.31574136 -0.52258384
-0.71385115 -0.31574136 -0.52102947
-0.70204443 -0.31574136 -0.45849532
-0.70270532 -0.31574136 -0.45714188
-0.70136225 -0.31016845 -0.4529224
-0.70270532 -0.31016845 -0.45107865
-0.70391697 -0.30459553 -0.44456303
-0.70177907 -0.31295496 -0.45570886
-0.70270532 -0.31295496 -0.45321584
-0.65254909 -0.29361075 -0.39997965
-0.65254909 -0.29623622 -0.39823884
-0.64760059 -0.29623622 -0.39997965
-0.64976263 -0.29499656 -0.39997965
-0.64976263 -0.29623622 -0.39920098
-0.66234851 -0.2906633 -0.38883382
-0.66358525 -0.28787678 -0.38047445
-0.66369492 -0.28787678 -0.38014048
-0.70347202 -0.30738205 -0.44734949
-0.70270532 -0.30554157 -0.44734949
-0.72898066 -0.30459553 -0.5058651
-0.6450966 -0.29902261 -0.40276617
-0.64697617 -0.29902261 -0.40117514
-0.64418972 -0.29843706 -0.40276617
-0.6643194 -0.28509039 -0.37768799
-0.66369492 -0.283153 -0.37768799
-0.70314825 -0.30180913 -0.44177657
-0.70270532 -0.30180913 -0.43959516
-0.65844089 -0.2934497 -0.39440674
-0.66090846 -0.2934497 -0.39168411
-0.658122 -0.29314548 -0.39440674
-0.72221053 -0.31295496 -0.5156976
-0.71862382 -0.31295496 -0.51701093
-0.71942407 -0.31295496 -0.51647109
-0.72961491 -0.30180913 -0.50029218
-0.7305699 -0.30180913 -0.49767756
-0.72480011 -0.31016845 -0.51422447
-0.72499698 -0.31016845 -0.51403779
-0.71942407 -0.31574136 -0.51716816
-0.71571559 -0.31574136 -0.51979738
-0.71663761 -0.31574136 -0.51931399
-0.70314878 -0.31016845 -0.45013595
-0.70270532 -0.30913049 -0.45013595
-0.72794664 -0.30738205 -0.50865155
-0.72778344 -0.3072508 -0.50865155
-0.72499698 -0.3061983 -0.50865155
-0.70377558 -0.30459553 -0.44177657
-0.70327699 -0.31574136 -0.45570886
-0.70270532 -0.31467563 -0.45570886
-0.7028355 -0.31295496 -0.4529224
-0.70270532 -0.31259805 -0.4529224
-0.66354489 -0.2906633 -0.38604736
-0.66369492 -0.2906633 -0.38570613
-0.66482711 -0.28787678 -0.37768799
-0.70544928 -0.30738205 -0.44456303
-0.658122 -0.29623622 -0.39671612
-0.65517676 -0.29623622 -0.39719319
-0.65533555 -0.29598302 -0.39719319
-0.65533555 -0.29623622 -0.39713722
-0.72910488 -0.30459553 -0.50307864
-0.66503859 -0.28509039 -0.37490153
-0.66648138 -0.28509039 -0.37354338
-0.65254909 -0.29902261 -0.39804018
-0.64822173 -0.29902261 -0.39997965
-0.64976263 -0.29902261 -0.39886308
-0.70252019 -0.30180913 -0.43899012
-0.66094685 -0.2934497 -0.39162028
-0.66369492 -0.2934497 -0.38926178
-0.66090846 -0.2933237 -0.39162028
-0.658122 -0.29102594 -0.39162028
-0.72389394 -0.31295496 -0.51422447
-0.72499698 -0.31295496 -0.51324373
-0.70427692 -0.31016845 -0.44734949
-0.73083705 -0.30180913 -0.49750572
-0.73335636 -0.30180913 -0.49584734
-0.72865611 -0.30738205 -0.5058651
-0.72637051 -0.31016845 -0.51143801
-0.72778344 -0.31016845 -0.50908309
-0.72499698 -0.30827945 -0.51143801
-0.70409304 -0.31574136 -0.4529224
-0.70322764 -0.30459553 -0.43899012
-0.70270532 -0.30231839 -0.43899012
-0.70270532 -0.30459553 -0.43825662
-0.72499698 -0.31574136 -0.51426446
-0.71963489 -0.31574136 -0.51701093
-0.72221053 -0.31574136 -0.51527625
-0.71942407 -0.31521946 -0.51701093
-0.70385969 -0.31295496 -0.45013595
-0.66453183 -0.2906633 -0.38326091
-0.66611761 -0.28787678 -0.37490153
-0.66648138 -0.28787678 -0.37433749
-0.70432395 -0.30738205 -0.44177657
-0.73008245 -0.30459553 -0.50029218
-0.7305699 -0.30459553 -0.49884003
-0.65961194 -0.29623622 -0.39440674
-0.66090846 -0.29623622 -0.39196748
-0.70118111 -0.30180913 -0.43620366
-0.69991887 -0.30180913 -0.43467379
-0.658122 -0.29902261 -0.39590222
-0.65441632 -0.29902261 -0.39719319
-0.65533555 -0.29902261 -0.39677185
-0.67205429 -0.28509039 -0.36954117
-0.66834784 -0.28509039 -0.37211508
-0.66926783 -0.28355414 -0.37211508
-0.66926783 -0.28509039 -0.37139118
-0.72628129 -0.31295496 -0.51143801
-0.72778344 -0.31295496 -0.50925452
-0.70454365 -0.31016845 -0.44456303
-0.72987473 -0.30738205 -0.50307864
-0.7305699 -0.30738205 -0.5014751
-0.70505488 -0.31574136 -0.45013595
-0.70549178 -0.31574136 -0.44884211
-0.66413444 -0.2934497 -0.38883382
-0.66369492 -0.29279274 -0.38883382
-0.72802901 -0.31016845 -0.50865155
-0.70162636 -0.30459553 -0.43620366
-0.7343145 -0.30180913 -0.49471927
-0.73614281 -0.29929048 -0.49471927
-0.70534462 -0.31295496 -0.44734949
-0.72502512 -0.31574136 -0.51422447
-0.72499698 -0.31562239 -0.51422447
-0.66488349 -0.2906633 -0.38047445
-0.66369492 -0.2882356 -0.38047445
-0.66876858 -0.28787678 -0.37211508
-0.66926783 -0.28787678 -0.37157124
-0.70427454 -0.30738205 -0.43899012
-0.73191756 -0.30459553 -0.49750572
-0.73335636 -0.30459553 -0.49619937
-0.66121626 -0.29623622 -0.39162028
-0.66369492 -0.29623622 -0.38978952
-0.69895768 -0.30180913 -0.4334172
-0.65986562 -0.29902261 -0.39440674
-0.66090846 -0.29902261 -0.3932296
-0.67242014 -0.28509039 -0.36932862
-0.67484075 -0.28509039 -0.36726379
-0.70476228 -0.31016845 -0.44177657
-0.70549178 -0.31016845 -0.44025415
-0.72815531 -0.31295496 -0.50865155
-0.70587307 -0.31574136 -0.44734949
-0.70549178 -0.31349808 -0.44734949
-0.66515577 -0.2934497 -0.38604736
-0.66369492 -0.29093355 -0.38604736
-0.72922951 -0.31016845 -0.5058651
-0.7051307 -0.31295496 -0.44456303
-0.70549178 -0.31295496 -0.44367957
-0.70023847 -0.30459553 -0.4334172
-0.69991887 -0.30413479 -0.4334172
-0.69991887 -0.30459553 -0.43306488
-0.73156601 -0.30738205 -0.50029218
-0.73335636 -0.30738205 -0.49796671
-0.7305699 -0.30600733 -0.50029218
-0.72722155 -0.31574136 -0.51143801
-0.72778344 -0.31574136 -0.51068544
-0.73601168 -0.30180913 -0.49193281
-0.73614281 -0.30171603 -0.49193281
-0.73614281 -0.30180913 -0.49182355
-0.66592669 -0.2906633 -0.37768799
-0.66648138 -0.2906633 -0.37678427
-0.67139977 -0.28787678 -0.36932862
-0.67205429 -0.28594822 -0.36932862
-0.67205429 -0.28787678 -0.36863446
-0.70273459 -0.30738205 -0.43620366
-0.70270532 -0.30732566 -0.43620366
-0.70270532 -0.30738205 -0.43616652
-0.66485071 -0.29623622 -0.38883382
-0.73404378 -0.30459553 -0.49471927
-0.73614281 -0.30459553 -0.49314445
-0.69728208 -0.30180913 -0.43063074
-0.69713241 -0.30180913 -0.43048608
-0.66261882 -0.29902261 -0.39162028
-0.66369492 -0.29902261 -0.3907395
-0.67538702 -0.28509039 -0.36654216
-0.70595628 -0.31016845 -0.43899012
-0.70549178 -0.30946773 -0.43899012
-0.70549178 -0.31016845 -0.43762898
-0.73055369 -0.31295496 -0.5058651
-0.7305699 -0.31295496 -0.50584805
-0.70645446 -0.31574136 -0.44456303
-0.70549178 -0.31409925 -0.44456303
-0.66579646 -0.2934497 -0.38326091
-0.66648138 -0.2934497 -0.3807857
-0.73040646 -0.31016845 -0.50307864
-0.7305699 -0.31016845 -0.50277436
-0.70679969 -0.31295496 -0.44177657
-0.70549178 -0.31174642 -0.44177657
-0.73406792 -0.30738205 -0.49750572
-0.73335636 -0.30665416 -0.49750572
-0.69802248 -0.30459553 -0.43063074
-0.69713241 -0.30459553 -0.42919809
-0.69434595 -0.30459553 -0.42816567
-0.72892958 -0.31574136 -0.50865155
-0.7305699 -0.31574136 -0.50646174
-0.66765183 -0.2906633 -0.37490153
-0.66926783 -0.2906633 -0.37229639
-0.66648138 -0.28849083 -0.37490153
-0.67467737 -0.28787678 -0.36654216
-0.67484075 -0.28744656 -0.36654216
-0.67484075 -0.28787678 -0.36640239
-0.66641474 -0.29623622 -0.38604736
-0.66648138 -0.29623622 -0.38564992
-0.70105517 -0.30738205 -0.4334172
-0.69991887 -0.30738205 -0.43218541
-0.73614281 -0.30190045 -0.49193281
-0.69532895 -0.30180913 -0.42784429
-0.69434595 -0.30180913 -0.42621785
-0.66556263 -0.29902261 -0.38883382
-0.66648138 -0.29902261 -0.38676202
-0.70807064 -0.31574136 -0.44177657
-0.70494932 -0.31016845 -0.43620366
-0.70270532 -0.31016845 -0.43407851
-0.67746717 -0.28509039 -0.3637557
-0.67762721 -0.28509039 -0.36330563
-0.73237485 -0.31295496 -0.50307864
-0.7305699 -0.31054395 -0.50307864
-0.66656268 -0.2934497 -0.38047445
-0.66648138 -0.29327542 -0.38047445
-0.733284 -0.31016845 -0.50029218
-0.73335636 -0.31016845 -0.50023788
-0.70701617 -0.31295496 -0.43899012
-0.73514688 -0.30738205 -0.49471927
-0.69396216 -0.30459553 -0.42784429
-0.69434595 -0.30345374 -0.42784429
-0.7309885 -0.31574136 -0.5058651
-0.7305699 -0.31302196 -0.5058651
-0.66940439 -0.2906633 -0.37211508
-0.66926783 -0.28987378 -0.37211508
-0.67698944 -0.28787678 -0.3637557
-0.67762721 -0.28787678 -0.36278301
-0.6668216 -0.29623622 -0.38326091
-0.66648138 -0.29532748 -0.38326091
-0.6984933 -0.30738205 -0.43063074
-0.69713241 -0.30738205 -0.42845619
-0.73892927 -0.30459553 -0.48878521
-0.69308197 -0.30180913 -0.42505783
-0.69434595 -0.29988128 -0.42505783
-0.69155949 -0.30180913 -0.4241091
-0.68877304 -0.30180913 -0.42317885
-0.68598658 -0.30180913 -0.42259783
-0.68320012 -0.30180913 -0.4229995
-0.66679919 -0.29902261 -0.38604736
-0.66648138 -0.29671246 -0.38604736
-0.70776951 -0.31574136 -0.43899012
-0.70225 -0.31016845 -0.4334172
-0.69991887 -0.31016845 -0.4307003
-0.73242825 -0.31295496 -0.50029218
-0.73335636 -0.31295496 -0.49839503
-0.67824411 -0.28509039 -0.36096925
-0.6676439 -0.2934497 -0.37768799
-0.66648138 -0.29160303 -0.37768799
-0.70632488 -0.31295496 -0.43620366
-0.70549178 -0.31092411 -0.43620366
-0.70549178 -0.31295496 -0.43488157
-0.73585862 -0.31016845 -0.49750572
-0.73614281 -0.31016845 -0.49703598
-0.73458236 -0.30738205 -0.49193281
-0.73614281 -0.3054077 -0.49193281
-0.69325089 -0.30459553 -0.42505783
-0.69155949 -0.30459553 -0.42435151
-0.68877304 -0.30459553 -0.42264253
-0.68598658 -0.30459553 -0.42270535
-0.73280567 -0.31574136 -0.50307864
-0.73335636 -0.31574136 -0.5024758
-0.66742849 -0.29623622 -0.38047445
-0.67833918 -0.28787678 -0.36096925
-0.67093581 -0.2906633 -0.36932862
-0.67205429 -0.2906633 -0.3679536
-0.73722893 -0.30459553 -0.48635989
-0.73614281 -0.30459553 -0.4849782
-0.73335636 -0.30459553 -0.48417646
-0.69671464 -0.30738205 -0.42784429
-0.69434595 -0.30506581 -0.42784429
-0.69155949 -0.30738205 -0.42514104
-0.66775882 -0.29902261 -0.38326091
-0.70721102 -0.31574136 -0.43620366
-0.70549178 -0.31574136 -0.43452299
-0.69985932 -0.31016845 -0.43063074
-0.69713241 -0.31016845 -0.42842847
-0.68041366 -0.31016845 -0.4278776
-0.69155949 -0.29973549 -0.42227137
-0.68877304 -0.2992962 -0.42227137
-0.68320012 -0.30105847 -0.42227137
-0.73335636 -0.30180913 -0.47727251
-0.66867155 -0.2934497 -0.37490153
-0.66926783 -0.2934497 -0.37379336
-0.73370355 -0.31295496 -0.49750572
-0.67865705 -0.28509039 -0.35818279
-0.70337862 -0.31295496 -0.4334172
-0.70270532 -0.31177264 -0.4334172
-0.70270532 -0.31295496 -0.43304414
-0.73656785 -0.31016845 -0.49471927
-0.73614281 -0.30889994 -0.49471927
-0.73614281 -0.31016845 -0.49325722
-0.73508984 -0.30738205 -0.48914635
-0.73614281 -0.3059383 -0.48914635
-0.73335636 -0.30738205 -0.48726565
-0.73448229 -0.31574136 -0.50029218
-0.73335636 -0.31417626 -0.50029218
-0.66849428 -0.29623622 -0.37768799
-0.66926783 -0.29623622 -0.37546611
-0.67938495 -0.28787678 -0.35818279
-0.73614281 -0.30347091 -0.48357344
-0.73301464 -0.30459553 -0.48357344
-0.73335636 -0.30399293 -0.48357344
-0.67344654 -0.2906633 -0.36654216
-0.67484075 -0.2906633 -0.36516142
-0.66853905 -0.29902261 -0.38047445
-0.69555628 -0.30738205 -0.42505783
-0.69223768 -0.30738205 -0.42505783
-0.69434595 -0.30635291 -0.42505783
-0.69434595 -0.30738205 -0.42413777
-0.6914565 -0.30738205 -0.42505783
-0.69155949 -0.30707926 -0.42505783
-0.68598658 -0.30738205 -0.42426986
-0.68138248 -0.30738205 -0.42505783
-0.68320012 -0.30738205 -0.4244675
-0.68041366 -0.30715555 -0.42505783
-0.6606546 -0.30738205 -0.42505783
-0.658122 -0.30738205 -0.42309397
-0.65272808 -0.30459553 -0.41948491
-0.65254909 -0.30396336 -0.41948491
-0.65254909 -0.30459553 -0.41914392
-0.69652575 -0.31016845 -0.42784429
-0.68060559 -0.31016845 -0.42784429
-0.68320012 -0.31016845 -0.42726582
-0.70485055 -0.31574136 -0.4334172
-0.70270532 -0.31574136 -0.43186784
-0.67766422 -0.31574136 -0.4334172
-0.68041366 -0.31574136 -0.43115187
-0.6772784 -0.31574136 -0.4334172
-0.67484075 -0.31574136 -0.43153709
-0.64988285 -0.30180913 -0.41948491
-0.64976263 -0.30180913 -0.41945034
-0.64697617 -0.30180913 -0.41872603
-0.73253232 -0.30180913 -0.47521406
-0.73335636 -0.3013441 -0.47521406
-0.72778344 -0.30180913 -0.47394699
-0.72499698 -0.30180913 -0.47256702
-0.72221053 -0.30180913 -0.47300333
-0.67012852 -0.2934497 -0.37211508
-0.73427981 -0.31295496 -0.49471927
-0.73614281 -0.31085819 -0.49471927
-0.73335636 -0.31295496 -0.49298704
-0.67880541 -0.28509039 -0.35539633
-0.70085466 -0.31295496 -0.43063074
-0.69991887 -0.31031209 -0.43063074
-0.69991887 -0.31295496 -0.42938858
-0.68320012 -0.31295496 -0.42831945
-0.68041366 -0.31295496 -0.42817968
-0.67142993 -0.31295496 -0.43063074
-0.73436362 -0.31016845 -0.49193281
-0.73335636 -0.31016845 -0.48946363
-0.73395848 -0.31574136 -0.49750572
-0.73335636 -0.31574136 -0.49639559
-0.73614281 -0.30575448 -0.48635989
-0.73244792 -0.30738205 -0.48635989
-0.73335636 -0.30635828 -0.48635989
-0.67974132 -0.28787678 -0.35539633
-0.66953325 -0.29623622 -0.37490153
-0.66926783 -0.29543573 -0.37490153
-0.73614281 -0.30346256 -0.48078698
-0.73151463 -0.30459553 -0.48078698
-0.73335636 -0.30375844 -0.48078698
-0.7305699 -0.30459553 -0.47947854
-0.67681652 -0.2906633 -0.3637557
-0.67762721 -0.2906633 -0.36292017
-0.66909474 -0.29902261 -0.37768799
-0.66926783 -0.29902261 -0.37729895
-0.65081823 -0.30459553 -0.41669846
-0.64976263 -0.30386311 -0.41669846
-0.64976263 -0.30459553 -0.41555297
-0.64697617 -0.30324572 -0.41669846
-0.6891802 -0.30738205 -0.42227137
-0.68832815 -0.30738205 -0.42227137
-0.68877304 -0.3059873 -0.42227137
